ply
format ascii 1.0
comment VCGLIB generated
element vertex 2060
property float x
property float y
property float z
element face 0
property list uchar int vertex_indices
end_header
2.02292 14.9501 0 
1.78122 15.1939 0 
1.9106 16.1799 0 
1.90367 15.7476 0 
1.86965 15.2814 0 
1.96681 15.3586 0 
2.05845 15.4436 0 
2.14819 15.5278 0 
2.06108 15.5944 0 
1.97728 15.6681 0 
1.98257 15.8244 0 
2.05659 15.9062 0 
2.05238 16.052 0 
1.98096 16.1156 0 
2.12449 15.9906 0 
1.97442 16.2523 0 
2.9098 13.5778 0 
2.8956 13.6776 0 
2.88101 13.7765 0 
2.86539 13.8725 0 
2.84769 13.9629 0 
2.82863 14.0526 0 
2.82198 14.1637 0 
1.86487 15.1269 0 
1.93742 15.0817 0 
2.00196 15.0429 0 
2.81579 14.2821 0 
2.05485 15.0099 0 
2.81642 14.4035 0 
2.70193 14.4272 0 
2.59678 14.5687 0 
2.52743 14.6718 0 
2.45045 14.7278 0 
2.3723 14.7845 0 
2.2897 14.8523 0 
2.20644 14.9198 0 
2.11553 14.9744 0 
1.93979 15.2194 0 
2.04548 16.1905 0 
2.05784 15.752 0 
2.03751 15.2939 0 
2.13797 15.38 0 
2.22427 15.4712 0 
2.28577 15.5753 0 
2.20836 15.6314 0 
2.13881 15.6866 0 
2.13121 15.8422 0 
2.19548 15.9319 0 
2.18543 16.0685 0 
2.11646 16.1296 0 
2.25137 16.0056 0 
2.10732 16.2629 0 
2.03608 16.3242 0 
1.96414 16.3855 0 
3.01012 13.5917 0 
2.99665 13.6919 0 
2.98288 13.7921 0 
2.9684 13.8912 0 
2.95226 13.9877 0 
2.93231 14.083 0 
2.91671 14.1865 0 
2.90004 14.3019 0 
2.00174 15.1635 0 
2.04957 15.105 0 
2.07944 15.0496 0 
2.89328 14.3957 0 
2.14328 15.0447 0 
2.89286 14.4546 0 
2.84244 14.4847 0 
2.77296 14.5368 0 
2.67375 14.6515 0 
2.59387 14.7468 0 
2.52463 14.8183 0 
2.44024 14.881 0 
2.35596 14.9421 0 
2.25728 14.9928 0 
2.10312 15.2277 0 
2.17708 16.2015 0 
2.20611 15.7843 0 
2.20857 15.3181 0 
2.29503 15.4145 0 
2.35814 15.5223 0 
2.41029 15.6142 0 
2.34397 15.6702 0 
2.27585 15.7287 0 
2.26223 15.8611 0 
2.31815 15.9328 0 
2.30866 16.0746 0 
2.24448 16.139 0 
2.37099 15.9998 0 
2.23773 16.2718 0 
2.16853 16.3337 0 
2.09734 16.3953 0 
2.02501 16.4569 0 
3.11057 13.6048 0 
3.09783 13.7054 0 
3.08487 13.8063 0 
3.07145 13.9071 0 
3.05697 14.0072 0 
3.03999 14.1079 0 
3.01853 14.2132 0 
2.99269 14.3233 0 
2.97101 14.4085 0 
2.16324 15.1376 0 
2.94714 14.4816 0 
2.31733 15.0764 0 
2.90365 14.5461 0 
2.84175 14.6221 0 
2.74551 14.7357 0 
2.66491 14.8242 0 
2.58717 14.8936 0 
2.50047 14.9582 0 
2.41211 15.0211 0 
2.28844 15.2515 0 
2.3039 16.2085 0 
2.32761 15.7983 0 
2.37074 15.3567 0 
2.4682 15.5673 0 
2.43491 15.478 0 
2.51906 15.5411 0 
2.55588 15.5677 0 
2.50538 15.6137 0 
2.44957 15.6735 0 
2.38912 15.7356 0 
2.37734 15.8661 0 
2.42838 15.9309 0 
2.42483 16.0673 0 
2.3664 16.1431 0 
2.48127 15.9963 0 
2.36305 16.2778 0 
2.29854 16.3418 0 
2.23004 16.4039 0 
2.15889 16.4661 0 
2.08588 16.5283 0 
3.21112 13.6172 0 
3.19913 13.7179 0 
3.18696 13.8193 0 
3.17449 13.921 0 
3.1614 14.023 0 
3.14693 14.1264 0 
3.13021 14.2343 0 
3.10031 14.3394 0 
3.07301 14.4373 0 
3.04269 14.5298 0 
2.39254 15.1735 0 
2.99345 14.6176 0 
2.47831 15.1141 0 
2.92662 14.7147 0 
2.82736 14.8377 0 
2.74285 14.9225 0 
2.65104 14.9865 0 
2.56484 15.0489 0 
2.45522 15.2898 0 
2.42347 16.2111 0 
2.43436 15.7998 0 
2.5306 15.4537 0 
2.60129 15.4987 0 
2.65774 15.5489 0 
2.59765 15.6059 0 
2.5469 15.6663 0 
2.49178 15.7328 0 
2.4801 15.8665 0 
2.53236 15.9303 0 
2.53925 16.0718 0 
2.48008 16.1416 0 
2.59361 16.0063 0 
2.4793 16.2786 0 
2.42129 16.3468 0 
2.35909 16.412 0 
2.29209 16.4742 0 
2.22063 16.5364 0 
2.14674 16.5998 0 
3.31178 13.6288 0 
3.30053 13.7297 0 
3.28914 13.8313 0 
3.27755 13.9335 0 
3.26559 14.0364 0 
3.25292 14.1409 0 
3.2393 14.2492 0 
3.22411 14.3628 0 
3.19948 14.4593 0 
3.1676 14.5831 0 
3.12924 14.6873 0 
2.54132 15.2108 0 
3.07193 14.8361 0 
2.62664 15.1326 0 
2.91369 14.9298 0 
2.80637 15.0026 0 
2.71021 15.0705 0 
2.62356 15.3416 0 
2.53361 16.2075 0 
2.53656 15.7964 0 
2.67889 15.4203 0 
2.72213 15.4816 0 
2.76782 15.5441 0 
2.7033 15.608 0 
2.64747 15.6693 0 
2.5944 15.7272 0 
2.58971 15.8615 0 
2.65244 15.9418 0 
2.64394 16.0701 0 
2.59106 16.136 0 
2.70127 16.0047 0 
2.58658 16.2719 0 
2.5344 16.3447 0 
2.47853 16.4147 0 
2.41856 16.482 0 
2.35411 16.5467 0 
2.28394 16.6098 0 
2.21119 16.6744 0 
3.41253 13.6396 0 
3.40202 13.7407 0 
3.39141 13.8425 0 
3.38065 13.9449 0 
3.36966 14.0482 0 
3.35831 14.153 0 
3.34663 14.2608 0 
3.33534 14.373 0 
3.31339 14.4779 0 
3.27921 14.6022 0 
3.2522 14.7274 0 
3.22601 14.8514 0 
3.22203 14.9651 0 
3.11222 14.98 0 
2.69999 15.2606 0 
2.97382 15.033 0 
2.77527 15.1891 0 
2.87258 15.1125 0 
2.7553 15.3599 0 
2.64323 16.1964 0 
2.648 15.7929 0 
2.79513 15.4247 0 
2.83695 15.4965 0 
2.87637 15.5682 0 
2.81884 15.6128 0 
2.75536 15.6798 0 
2.69984 15.7374 0 
2.70948 15.8753 0 
2.75683 15.9367 0 
2.74796 16.066 0 
2.69298 16.1323 0 
2.80498 15.9919 0 
2.69687 16.2563 0 
2.64137 16.3342 0 
2.59129 16.4084 0 
2.53746 16.4799 0 
2.47948 16.5489 0 
2.41695 16.6154 0 
2.3485 16.6804 0 
2.27756 16.747 0 
3.51336 13.6497 0 
3.5036 13.7509 0 
3.49376 13.8528 0 
3.4838 13.9554 0 
3.47369 14.0589 0 
3.46339 14.1637 0 
3.453 14.2707 0 
3.44313 14.381 0 
3.43516 14.4919 0 
3.40769 14.6116 0 
3.37858 14.7366 0 
3.34906 14.8606 0 
3.22344 15.0563 0 
3.14738 15.0714 0 
3.22778 15.1108 0 
3.32052 14.9784 0 
3.29642 15.0668 0 
3.27522 15.1354 0 
3.02891 15.129 0 
2.83345 15.2957 0 
2.92983 15.2118 0 
2.8744 15.3848 0 
2.74376 16.1913 0 
2.75938 15.8112 0 
2.90426 15.4731 0 
2.92573 15.5471 0 
2.93706 15.5891 0 
2.91028 15.6173 0 
2.86402 15.6812 0 
2.80882 15.7501 0 
2.80644 15.8698 0 
2.8546 15.9282 0 
2.85427 16.049 0 
2.79692 16.1228 0 
2.90388 15.9864 0 
2.7962 16.2495 0 
2.75169 16.3154 0 
2.69783 16.395 0 
2.64989 16.4706 0 
2.59813 16.5436 0 
2.54218 16.6143 0 
2.48164 16.6825 0 
2.41506 16.7492 0 
2.34602 16.8179 0 
3.61426 13.6591 0 
3.60526 13.7603 0 
3.59618 13.8623 0 
3.58701 13.9651 0 
3.57773 14.0687 0 
3.56834 14.1734 0 
3.55895 14.2798 0 
3.54997 14.3885 0 
3.54237 14.4979 0 
3.52738 14.6208 0 
3.50087 14.7519 0 
3.46507 14.8767 0 
3.43005 14.997 0 
3.18154 15.1435 0 
3.0886 15.2145 0 
3.23384 15.1957 0 
3.30474 15.2518 0 
3.40001 15.0931 0 
3.3648 15.1845 0 
2.99681 15.3341 0 
2.98978 15.4627 0 
2.84745 16.1799 0 
2.85355 15.8052 0 
2.98401 15.5446 0 
2.97674 15.6014 0 
2.94922 15.6559 0 
2.90315 15.7303 0 
2.90586 15.8651 0 
2.95535 15.9211 0 
2.95217 16.0428 0 
2.9036 16.1061 0 
3.00203 15.9779 0 
2.8994 16.2351 0 
2.85026 16.3061 0 
2.80786 16.3729 0 
2.756 16.4541 0 
2.71019 16.531 0 
2.66049 16.6056 0 
2.60655 16.6778 0 
2.54803 16.7478 0 
2.48365 16.8165 0 
2.4167 16.8869 0 
3.71523 13.6677 0 
3.70698 13.769 0 
3.69866 13.8711 0 
3.69027 13.9739 0 
3.6818 14.0776 0 
3.67325 14.1823 0 
3.66472 14.2882 0 
3.65647 14.3958 0 
3.6491 14.504 0 
3.6546 14.6181 0 
3.68185 14.7944 0 
3.6125 14.9202 0 
3.56681 15.0259 0 
3.53203 15.1209 0 
3.16083 15.2734 0 
3.106 15.3712 0 
3.23064 15.3257 0 
3.30578 15.3963 0 
3.37206 15.343 0 
3.48619 15.2691 0 
3.07893 15.4717 0 
3.06091 15.5513 0 
2.95299 16.1628 0 
2.95672 15.8032 0 
3.0449 15.6233 0 
3.02244 15.7242 0 
3.00404 15.8704 0 
3.04694 15.9327 0 
3.05077 16.0372 0 
3.00103 16.1001 0 
3.09138 15.9953 0 
2.99807 16.2128 0 
2.9533 16.2884 0 
2.90622 16.3609 0 
2.86567 16.4288 0 
2.81606 16.5115 0 
2.7724 16.5896 0 
2.72475 16.6655 0 
2.6728 16.7392 0 
2.61624 16.8109 0 
2.55396 16.8816 0 
2.48903 16.9538 0 
3.81627 13.6755 0 
3.80876 13.7769 0 
3.80121 13.8791 0 
3.79359 13.982 0 
3.78591 14.0857 0 
3.77817 14.1903 0 
3.77044 14.296 0 
3.76288 14.403 0 
3.77352 14.5066 0 
3.78515 14.6123 0 
3.81372 14.7394 0 
3.83966 14.8505 0 
3.76375 14.8845 0 
3.71449 14.9564 0 
3.67937 15.0541 0 
3.66154 15.1611 0 
3.64205 15.2736 0 
3.18201 15.4032 0 
3.16261 15.4836 0 
3.26272 15.4451 0 
3.3008 15.4699 0 
3.33741 15.4511 0 
3.41157 15.427 0 
3.53494 15.4007 0 
3.64015 15.3842 0 
3.14509 15.5594 0 
3.13721 15.6422 0 
3.041 16.1492 0 
3.06116 15.8248 0 
3.1268 15.7263 0 
3.11652 15.8023 0 
3.10527 15.8965 0 
3.13742 15.9695 0 
3.12537 16.0376 0 
3.08977 16.0834 0 
3.15 16.0107 0 
3.08934 16.1999 0 
3.05294 16.2674 0 
3.00894 16.3403 0 
2.96397 16.4142 0 
2.92516 16.4833 0 
2.87786 16.5671 0 
2.83641 16.6465 0 
2.79088 16.7236 0 
2.74097 16.7987 0 
2.68638 16.8719 0 
2.62586 16.9442 0 
2.56293 17.0183 0 
3.91734 13.6826 0 
3.9106 13.784 0 
3.9038 13.8862 0 
3.89696 13.9892 0 
3.89006 14.093 0 
3.88312 14.1976 0 
3.87617 14.3032 0 
3.88064 14.4083 0 
3.89436 14.5089 0 
3.90835 14.6103 0 
3.927 14.7097 0 
3.93574 14.8262 0 
3.80025 14.9239 0 
3.85143 14.9152 0 
3.94085 14.9047 0 
3.78347 14.978 0 
3.76285 15.0727 0 
3.75341 15.1784 0 
3.74787 15.287 0 
3.74602 15.3857 0 
3.2447 15.5014 0 
3.23722 15.5733 0 
3.29902 15.5085 0 
3.35241 15.5081 0 
3.43213 15.5084 0 
3.55868 15.5086 0 
3.65213 15.497 0 
3.74496 15.4844 0 
3.23532 15.6567 0 
3.21065 15.7425 0 
3.13282 16.1239 0 
3.17498 15.8511 0 
3.19431 15.9553 0 
3.1877 16.0197 0 
3.16392 16.0669 0 
3.17926 16.1651 0 
3.13815 16.2415 0 
3.10511 16.3121 0 
3.06616 16.3904 0 
3.02336 16.4659 0 
2.98658 16.5357 0 
2.9412 16.621 0 
2.90199 16.7015 0 
2.8586 16.7799 0 
2.81075 16.8564 0 
2.75816 16.9311 0 
2.69974 17.0052 0 
2.63893 17.081 0 
4.01846 13.689 0 
4.01247 13.7905 0 
4.00643 13.8927 0 
4.00036 13.9957 0 
3.99425 14.0995 0 
3.9881 14.2041 0 
3.99268 14.3065 0 
4.00076 14.4091 0 
4.01843 14.5065 0 
4.03531 14.6043 0 
4.03906 14.6976 0 
4.03863 14.8092 0 
4.04001 14.8934 0 
3.85434 14.9882 0 
3.94239 14.9916 0 
4.03987 14.9918 0 
3.84331 15.0897 0 
3.8429 15.1885 0 
3.8426 15.2872 0 
3.84243 15.3859 0 
3.84235 15.4845 0 
3.3039 15.5814 0 
3.30751 15.6666 0 
3.36616 15.5863 0 
3.44369 15.592 0 
3.55997 15.6018 0 
3.6508 15.5967 0 
3.84231 15.5831 0 
3.74438 15.583 0 
3.2993 15.7562 0 
3.28941 15.8541 0 
3.21077 16.1012 0 
3.26639 15.9583 0 
3.24412 16.0394 0 
3.27625 16.1473 0 
3.23732 16.2139 0 
3.1995 16.285 0 
3.16439 16.3588 0 
3.12516 16.4398 0 
3.08443 16.516 0 
3.04845 16.5876 0 
3.00607 16.6731 0 
2.96917 16.7547 0 
2.92799 16.8342 0 
2.88224 16.912 0 
2.83166 16.9881 0 
2.77516 17.0638 0 
2.71644 17.1414 0 
2.79554 17.1995 0 
4.11962 13.6946 0 
4.11437 13.7961 0 
4.1091 13.8984 0 
4.1038 14.0014 0 
4.09846 14.1052 0 
4.10353 14.2057 0 
4.11193 14.3062 0 
4.12558 14.4089 0 
4.13302 14.5021 0 
4.13622 14.5989 0 
4.13748 14.6967 0 
4.13793 14.7949 0 
4.13806 14.8933 0 
4.13807 14.9918 0 
3.9418 15.0902 0 
4.03971 15.0903 0 
4.13805 15.0904 0 
3.9414 15.1888 0 
3.94116 15.2874 0 
3.94103 15.386 0 
3.94095 15.4845 0 
3.94091 15.5831 0 
3.37407 15.6747 0 
3.3777 15.7679 0 
3.45117 15.6823 0 
3.56024 15.6945 0 
3.94088 15.6817 0 
3.65345 15.6963 0 
3.84229 15.6817 0 
3.74406 15.6817 0 
3.37769 15.8657 0 
3.36626 15.9642 0 
3.33793 16.0875 0 
3.36355 16.1461 0 
3.33311 16.1899 0 
3.28756 16.2515 0 
3.25103 16.3219 0 
3.21698 16.399 0 
3.18114 16.4781 0 
3.14546 16.5586 0 
3.11163 16.635 0 
3.07224 16.7234 0 
3.03774 16.806 0 
2.99886 16.8867 0 
2.95534 16.9657 0 
2.90687 17.043 0 
2.85214 17.1201 0 
2.93115 17.175 0 
2.8769 17.2558 0 
4.22079 13.6994 0 
4.2163 13.801 0 
4.21179 13.9033 0 
4.20726 14.0063 0 
4.20305 14.1098 0 
4.2161 14.2136 0 
4.22641 14.3068 0 
4.23201 14.4028 0 
4.23466 14.5001 0 
4.23582 14.5981 0 
4.23631 14.6963 0 
4.2365 14.7948 0 
4.23656 14.8933 0 
4.23657 14.9918 0 
4.23657 15.0904 0 
4.0396 15.1889 0 
4.13803 15.1889 0 
4.23656 15.1889 0 
4.03953 15.2874 0 
4.03948 15.386 0 
4.03946 15.4846 0 
4.03944 15.5831 0 
4.03943 15.6817 0 
4.03943 15.7803 0 
3.45782 15.7773 0 
3.4623 15.8771 0 
3.56033 15.7899 0 
3.94087 15.7803 0 
3.6495 15.7937 0 
3.84229 15.7803 0 
3.7439 15.7803 0 
3.4599 15.9757 0 
3.43422 16.0842 0 
3.4226 16.1546 0 
3.40439 16.224 0 
3.37976 16.3029 0 
3.32792 16.3699 0 
3.2758 16.4407 0 
3.24226 16.5174 0 
3.20759 16.6019 0 
3.17577 16.6807 0 
3.13965 16.7719 0 
3.10756 16.8555 0 
3.07099 16.9373 0 
3.0297 17.0175 0 
2.98345 17.0963 0 
3.06148 17.1471 0 
3.01148 17.2273 0 
2.95953 17.3096 0 
4.32199 13.7035 0 
4.31825 13.8051 0 
4.3145 13.9074 0 
4.31111 14.0098 0 
4.3201 14.111 0 
4.32737 14.2065 0 
4.33143 14.3035 0 
4.33343 14.4012 0 
4.33438 14.4994 0 
4.33481 14.5977 0 
4.33499 14.6962 0 
4.33507 14.7947 0 
4.3351 14.8933 0 
4.33511 14.9918 0 
4.33511 15.0904 0 
4.33511 15.1889 0 
4.13801 15.2875 0 
4.23656 15.2875 0 
4.33511 15.2875 0 
4.138 15.386 0 
4.138 15.4846 0 
4.13799 15.5831 0 
4.13799 15.6817 0 
4.13799 15.7803 0 
3.94088 15.8788 0 
4.03943 15.8788 0 
4.13799 15.8788 0 
3.56411 15.8883 0 
3.55211 16 0 
3.65335 15.9 0 
3.84827 15.8961 0 
3.75252 15.9106 0 
3.53497 16.0907 0 
3.51755 16.1674 0 
3.50702 16.2475 0 
3.50004 16.36 0 
3.42119 16.4359 0 
3.36174 16.5007 0 
3.31559 16.5677 0 
3.27639 16.6519 0 
3.24506 16.7266 0 
3.20854 16.8183 0 
3.17889 16.9028 0 
3.14464 16.9856 0 
3.10557 17.0669 0 
3.183 17.1141 0 
3.14106 17.1954 0 
3.09305 17.277 0 
3.04335 17.3609 0 
4.42319 13.7069 0 
4.42021 13.8084 0 
4.41753 13.9101 0 
4.42336 14.0096 0 
4.42815 14.1066 0 
4.43089 14.2043 0 
4.43231 14.3024 0 
4.43302 14.4007 0 
4.43336 14.4991 0 
4.43353 14.5976 0 
4.4336 14.6961 0 
4.43364 14.7947 0 
4.43365 14.8932 0 
4.43366 14.9918 0 
4.43366 15.0904 0 
4.43366 15.1889 0 
4.43366 15.2875 0 
4.23655 15.386 0 
4.33511 15.386 0 
4.43366 15.386 0 
4.23655 15.4846 0 
4.23655 15.5831 0 
4.23655 15.6817 0 
4.23655 15.7803 0 
4.23655 15.8788 0 
3.86197 16.0268 0 
3.94406 16.0081 0 
4.03903 15.9922 0 
4.13799 15.9774 0 
4.23655 15.9774 0 
3.64581 16.0239 0 
3.63597 16.11 0 
3.77102 16.0602 0 
3.61534 16.1857 0 
3.59042 16.2641 0 
3.5804 16.3518 0 
3.58039 16.402 0 
3.54101 16.4287 0 
3.48562 16.4831 0 
3.43022 16.5451 0 
3.38933 16.6228 0 
3.34961 16.7054 0 
3.32088 16.7757 0 
3.28725 16.8634 0 
3.25161 16.948 0 
3.21979 17.0317 0 
3.29609 17.076 0 
3.26173 17.1594 0 
3.22205 17.2417 0 
3.1761 17.3245 0 
3.12871 17.4099 0 
4.52439 13.7094 0 
4.52234 13.8104 0 
4.52579 13.9092 0 
4.52866 14.0071 0 
4.53034 14.1052 0 
4.53125 14.2036 0 
4.53172 14.302 0 
4.53197 14.4005 0 
4.53209 14.499 0 
4.53216 14.5976 0 
4.53219 14.6961 0 
4.53221 14.7947 0 
4.53222 14.8932 0 
4.53222 14.9918 0 
4.53222 15.0904 0 
4.53222 15.1889 0 
4.53222 15.2875 0 
4.53222 15.386 0 
4.3351 15.4846 0 
4.43366 15.4846 0 
4.53222 15.4846 0 
4.3351 15.5831 0 
4.3351 15.6817 0 
4.3351 15.7803 0 
4.3351 15.8788 0 
4.3351 15.9774 0 
3.82032 16.1161 0 
3.87136 16.1052 0 
3.94249 16.0932 0 
4.03942 16.0759 0 
4.13798 16.0759 0 
4.23654 16.0759 0 
4.3351 16.0759 0 
3.73048 16.1361 0 
3.70226 16.2127 0 
3.8022 16.1698 0 
3.67461 16.294 0 
3.64089 16.3691 0 
3.61526 16.4197 0 
3.58341 16.4597 0 
3.53584 16.518 0 
3.4905 16.5839 0 
3.45258 16.6613 0 
3.41629 16.7459 0 
3.38941 16.8174 0 
3.35817 16.9033 0 
3.32537 16.9914 0 
3.40002 17.0329 0 
3.37335 17.1183 0 
3.34152 17.2026 0 
3.30429 17.286 0 
3.26073 17.37 0 
3.21579 17.4566 0 
4.62559 13.711 0 
4.62731 13.8095 0 
4.62879 13.9079 0 
4.62968 14.0063 0 
4.63019 14.1048 0 
4.63046 14.2034 0 
4.63061 14.3019 0 
4.63069 14.4004 0 
4.63073 14.499 0 
4.63075 14.5976 0 
4.63077 14.6961 0 
4.63077 14.7947 0 
4.63078 14.8932 0 
4.63078 14.9918 0 
4.63078 15.0904 0 
4.63078 15.1889 0 
4.63078 15.2875 0 
4.63078 15.386 0 
4.63078 15.4846 0 
4.43366 15.5831 0 
4.53222 15.5831 0 
4.63078 15.5831 0 
4.43366 15.6817 0 
4.43366 15.7803 0 
4.43366 15.8788 0 
4.43366 15.9774 0 
4.43366 16.0759 0 
3.86935 16.1757 0 
3.94086 16.1745 0 
4.03942 16.1745 0 
4.13799 16.1745 0 
4.23655 16.1745 0 
4.3351 16.1745 0 
4.43366 16.1745 0 
3.78484 16.2501 0 
3.75769 16.3322 0 
3.86134 16.2702 0 
3.71239 16.4014 0 
3.67596 16.4516 0 
3.641 16.4955 0 
3.59273 16.5513 0 
3.55278 16.6208 0 
3.51674 16.7022 0 
3.48363 16.785 0 
3.45877 16.8571 0 
3.43033 16.9425 0 
3.5034 16.9804 0 
3.47561 17.0721 0 
3.45161 17.1584 0 
3.42234 17.2435 0 
3.38762 17.328 0 
3.34664 17.4132 0 
3.3042 17.5009 0 
4.728 13.7105 0 
4.72855 13.8091 0 
4.72889 13.9076 0 
4.72909 14.0062 0 
4.7292 14.1047 0 
4.72926 14.2033 0 
4.7293 14.3019 0 
4.72932 14.4004 0 
4.72933 14.499 0 
4.72933 14.5976 0 
4.72934 14.6961 0 
4.72934 14.7947 0 
4.72934 14.8932 0 
4.72934 14.9918 0 
4.72934 15.0904 0 
4.72934 15.1889 0 
4.72934 15.2875 0 
4.72934 15.386 0 
4.72934 15.4846 0 
4.72934 15.5831 0 
4.53222 15.6817 0 
4.63078 15.6817 0 
4.72934 15.6817 0 
4.53222 15.7803 0 
4.53222 15.8788 0 
4.53222 15.9774 0 
4.53222 16.0759 0 
4.53222 16.1745 0 
3.94087 16.2731 0 
4.03943 16.2731 0 
4.13799 16.2731 0 
4.23655 16.2731 0 
4.3351 16.2731 0 
4.43366 16.2731 0 
4.53222 16.2731 0 
3.79006 16.4458 0 
3.84877 16.3839 0 
3.8787 16.4434 0 
3.85089 16.4837 0 
3.93223 16.3769 0 
3.7453 16.495 0 
3.70231 16.541 0 
3.65504 16.5937 0 
3.61298 16.6634 0 
3.57819 16.7411 0 
3.55171 16.8219 0 
3.52903 16.8946 0 
3.60027 16.9301 0 
3.57767 17.0151 0 
3.55221 17.1092 0 
3.5309 17.1961 0 
3.50423 17.2821 0 
3.47202 17.3675 0 
3.43368 17.4538 0 
3.39376 17.5427 0 
4.63078 15.7803 0 
4.72934 15.7803 0 
4.63078 15.8788 0 
4.63078 15.9774 0 
4.63078 16.0759 0 
4.63078 16.1745 0 
4.63078 16.2731 0 
4.02293 16.3736 0 
4.13798 16.3716 0 
4.23654 16.3716 0 
4.3351 16.3716 0 
4.43366 16.3716 0 
4.53222 16.3716 0 
4.63078 16.3716 0 
3.81498 16.5401 0 
3.92629 16.4464 0 
3.90813 16.5094 0 
3.86194 16.5871 0 
4.00838 16.454 0 
3.76942 16.5918 0 
3.72636 16.6449 0 
3.68817 16.7147 0 
3.65168 16.785 0 
3.62082 16.8567 0 
3.69767 16.8968 0 
3.6709 16.9648 0 
3.65292 17.0488 0 
3.63478 17.1368 0 
3.61122 17.2315 0 
3.58719 17.3183 0 
3.55748 17.4046 0 
3.5217 17.4919 0 
3.48431 17.5818 0 
4.72934 15.8788 0 
4.72934 15.9774 0 
4.72934 16.0759 0 
4.72934 16.1745 0 
4.72934 16.2731 0 
4.72934 16.3716 0 
4.13018 16.4627 0 
4.23655 16.4702 0 
4.33511 16.4702 0 
4.43366 16.4702 0 
4.53222 16.4702 0 
4.63078 16.4702 0 
4.72934 16.4702 0 
3.82581 16.641 0 
3.86389 16.674 0 
3.92186 16.6504 0 
3.98595 16.5364 0 
4.11681 16.5627 0 
3.79363 16.6926 0 
3.7635 16.7637 0 
3.72472 16.8292 0 
3.80912 16.8793 0 
3.77377 16.9346 0 
3.74789 16.9988 0 
3.7311 17.0818 0 
3.71257 17.1682 0 
3.69243 17.2646 0 
3.67117 17.352 0 
3.64399 17.4391 0 
3.61055 17.5273 0 
3.57568 17.6183 0 
4.23655 16.5687 0 
4.3351 16.5687 0 
4.43366 16.5687 0 
4.53222 16.5687 0 
4.63078 16.5687 0 
4.72934 16.5687 0 
3.85829 16.7213 0 
3.9204 16.745 0 
4.01631 16.7903 0 
4.0881 16.7081 0 
4.23609 16.6811 0 
3.85764 16.8274 0 
3.88207 16.8809 0 
3.8622 16.9168 0 
3.83962 16.9672 0 
3.82193 17.0322 0 
3.80773 17.1109 0 
3.79208 17.1983 0 
3.77425 17.2957 0 
3.75594 17.3836 0 
3.73146 17.4713 0 
3.7005 17.5603 0 
3.66821 17.6523 0 
4.3351 16.6673 0 
4.43366 16.6673 0 
4.53222 16.6673 0 
4.63078 16.6673 0 
4.72934 16.6673 0 
3.91887 16.8331 0 
3.98697 16.8477 0 
4.02922 16.8664 0 
4.06827 16.8424 0 
4.13917 16.8111 0 
4.24078 16.7869 0 
4.33725 16.7755 0 
3.91623 16.8839 0 
3.90756 16.9326 0 
3.8987 16.9873 0 
3.88831 17.0571 0 
3.87958 17.136 0 
3.86889 17.2251 0 
3.85651 17.3245 0 
3.84128 17.413 0 
3.81966 17.5014 0 
3.79169 17.5911 0 
3.76205 17.6837 0 
4.43366 16.7659 0 
4.53222 16.7659 0 
4.63078 16.7659 0 
4.72934 16.7659 0 
3.97708 16.8979 0 
4.03129 16.9055 0 
4.08649 16.8993 0 
4.16034 16.8864 0 
4.24647 16.873 0 
4.3351 16.8644 0 
4.43366 16.8644 0 
3.97293 16.9495 0 
3.96803 17.0059 0 
3.96112 17.0807 0 
3.9557 17.161 0 
3.94803 17.2507 0 
3.93925 17.3509 0 
3.92724 17.4397 0 
3.90854 17.5286 0 
3.88329 17.619 0 
3.85627 17.7124 0 
4.53222 16.8644 0 
4.63078 16.8644 0 
4.72934 16.8644 0 
4.03398 16.958 0 
4.09368 16.9634 0 
4.16956 16.9704 0 
4.25235 16.9777 0 
4.3351 16.963 0 
4.43366 16.963 0 
4.53222 16.963 0 
4.03264 17.0197 0 
4.03076 17.0979 0 
4.02978 17.1824 0 
4.02657 17.2741 0 
4.02233 17.375 0 
4.01372 17.4642 0 
3.99809 17.5535 0 
3.97568 17.6443 0 
3.95133 17.7384 0 
4.63078 16.963 0 
4.72934 16.963 0 
4.09705 17.0327 0 
4.17344 17.048 0 
4.25908 17.0654 0 
4.3351 17.0615 0 
4.43366 17.0615 0 
4.53222 17.0615 0 
4.63078 17.0615 0 
4.10068 17.1139 0 
4.10265 17.1998 0 
4.10391 17.294 0 
4.10553 17.3968 0 
4.10056 17.4862 0 
4.08818 17.5758 0 
4.06874 17.667 0 
4.04705 17.7618 0 
4.72934 17.0615 0 
4.17767 17.1323 0 
4.26322 17.1484 0 
4.3351 17.1601 0 
4.43366 17.1601 0 
4.53222 17.1601 0 
4.63078 17.1601 0 
4.72934 17.1601 0 
4.18118 17.2174 0 
4.18558 17.3133 0 
4.18867 17.4165 0 
4.18762 17.5058 0 
4.17873 17.5955 0 
4.16212 17.687 0 
4.14311 17.7824 0 
4.26504 17.2317 0 
4.34164 17.2435 0 
4.43366 17.2586 0 
4.53222 17.2586 0 
4.63078 17.2586 0 
4.72934 17.2586 0 
4.26854 17.3293 0 
4.27146 17.4342 0 
4.27007 17.5194 0 
4.26966 17.6129 0 
4.25629 17.7044 0 
4.23999 17.8002 0 
4.34783 17.3429 0 
4.43366 17.3572 0 
4.53222 17.3572 0 
4.63078 17.3572 0 
4.72934 17.3572 0 
4.35387 17.4488 0 
4.35309 17.5351 0 
4.35161 17.6266 0 
4.35095 17.7193 0 
4.33733 17.8154 0 
4.43636 17.4567 0 
4.53222 17.4558 0 
4.63078 17.4558 0 
4.72934 17.4558 0 
4.44163 17.5431 0 
4.44253 17.6386 0 
4.44598 17.7316 0 
4.43506 17.8279 0 
4.53413 17.5549 0 
4.63078 17.5543 0 
4.72934 17.5543 0 
4.54211 17.6482 0 
4.54087 17.7411 0 
4.53269 17.8375 0 
4.63196 17.6529 0 
4.72934 17.6529 0 
4.63617 17.748 0 
4.63096 17.8445 0 
4.72935 17.7514 0 
4.72939 17.8486 0 
1.69252 16.0191 -0.800935 
1.76026 16.046 -0.796202 
1.86769 16.0929 -0.787921 
1.93514 16.1866 -0.771403 
1.99489 16.0774 -0.79065 
2.01509 16.1533 -0.777272 
1.97859 16.2479 -0.760591 
2.04844 16.2092 -0.767419 
2.07799 16.08 -0.790206 
2.06492 16.1375 -0.780059 
2.10628 16.1749 -0.77347 
1.96413 16.3688 -0.739285 
2.03363 16.3123 -0.749247 
2.09833 16.269 -0.756874 
2.15858 16.2327 -0.76327 
2.16731 16.1151 -0.78402 
2.29061 16.096 -0.787374 
2.213 16.2 -0.769045 
2.02486 16.4407 -0.726605 
2.09565 16.3827 -0.736827 
2.15544 16.33 -0.746121 
2.2004 16.2789 -0.755136 
2.23079 16.2419 -0.761654 
2.28545 16.1875 -0.771248 
2.38836 16.0819 -0.789857 
2.38152 16.1785 -0.772841 
2.27901 16.2487 -0.760463 
2.08587 16.5129 -0.713871 
2.14996 16.4489 -0.725148 
2.20512 16.3828 -0.736814 
2.25843 16.3147 -0.748812 
2.37439 16.2484 -0.760517 
2.49252 16.0819 -0.789857 
2.48509 16.1787 -0.772795 
2.47349 16.2549 -0.75936 
2.14674 16.5849 -0.701167 
2.36522 16.3595 -0.740922 
2.21899 16.5254 -0.711669 
2.27997 16.4617 -0.722891 
2.47143 16.3326 -0.74566 
2.59265 16.08 -0.790198 
2.56774 16.1886 -0.771051 
2.54038 16.2691 -0.756849 
2.5209 16.3211 -0.747685 
2.20847 16.6571 -0.68844 
2.28015 16.596 -0.699214 
2.71043 16.0871 -0.788957 
2.81237 16.0899 -0.788448 
2.35008 16.536 -0.709792 
2.42895 16.4655 -0.722237 
2.50303 16.4017 -0.73347 
2.55395 16.3603 -0.740777 
2.6903 16.212 -0.766921 
2.61039 16.305 -0.750532 
2.27216 16.7276 -0.676007 
2.34214 16.6646 -0.687117 
2.41057 16.603 -0.697978 
2.82309 16.1733 -0.773759 
2.89707 16.0911 -0.78825 
2.88225 16.1541 -0.777131 
2.47838 16.5457 -0.708084 
2.54661 16.4808 -0.719536 
2.60109 16.4333 -0.72791 
2.67225 16.3688 -0.739281 
2.86918 16.2499 -0.760246 
2.76533 16.3004 -0.751333 
2.33777 16.7964 -0.663879 
2.40596 16.7316 -0.67531 
2.47253 16.6683 -0.686465 
2.53908 16.6096 -0.696814 
2.93193 16.1998 -0.769086 
2.99967 16.1259 -0.782115 
3.15056 16.0946 -0.787627 
3.25018 16.0729 -0.791457 
2.59173 16.5634 -0.704963 
2.64566 16.5203 -0.712558 
2.72355 16.455 -0.724087 
2.81856 16.3896 -0.735603 
2.91648 16.3285 -0.746384 
2.99705 16.2927 -0.752705 
2.4053 16.8635 -0.652057 
2.47167 16.7968 -0.663804 
2.53638 16.7319 -0.675254 
2.58697 16.6584 -0.688217 
2.61834 16.6152 -0.695836 
3.09229 16.2476 -0.760652 
3.19981 16.2017 -0.768749 
3.29012 16.1612 -0.775875 
2.68432 16.6188 -0.695196 
2.78094 16.557 -0.706093 
2.87206 16.496 -0.716846 
2.9649 16.4381 -0.727063 
3.05726 16.3833 -0.736716 
3.14967 16.334 -0.745416 
2.4746 16.9286 -0.640565 
2.53909 16.8603 -0.652619 
2.59039 16.7808 -0.666624 
2.63814 16.7035 -0.680264 
3.2418 16.291 -0.752998 
3.3315 16.2491 -0.760382 
2.77691 16.7163 -0.678012 
2.8455 16.658 -0.688289 
2.72248 16.7841 -0.666055 
2.91984 16.5951 -0.699375 
3.01059 16.5338 -0.710177 
3.10199 16.4765 -0.720281 
3.19375 16.4251 -0.729357 
3.28531 16.3797 -0.737353 
2.54568 16.9919 -0.629406 
2.60825 16.9219 -0.641757 
2.66917 16.8537 -0.653782 
3.37437 16.3363 -0.74501 
2.8395 16.7917 -0.664717 
2.89697 16.7465 -0.672684 
2.79022 16.8451 -0.65529 
2.96991 16.6923 -0.682232 
2.73814 16.9119 -0.643522 
3.05885 16.6298 -0.693265 
3.14895 16.5699 -0.703817 
3.23958 16.5157 -0.713381 
3.33039 16.4678 -0.72183 
3.41875 16.4227 -0.729779 
2.61848 17.0533 -0.618586 
2.67908 16.9816 -0.631228 
2.87458 16.8306 -0.657857 
2.93209 16.8142 -0.660747 
2.85504 16.8839 -0.648455 
3.02476 16.7741 -0.667818 
2.80814 16.9681 -0.6336 
3.10946 16.7249 -0.676481 
2.75104 17.0392 -0.621069 
3.19805 16.6628 -0.687444 
3.28746 16.6057 -0.697513 
3.37742 16.5552 -0.706406 
3.46492 16.5084 -0.714656 
2.69257 17.1124 -0.608171 
2.76867 17.1697 -0.598058 
2.94749 16.9077 -0.644264 
3.07666 16.8589 -0.652868 
2.88504 17.02 -0.62446 
3.16266 16.8191 -0.659884 
2.82511 17.095 -0.611236 
3.24933 16.7551 -0.671171 
3.33726 16.695 -0.681759 
3.42609 16.6418 -0.691149 
3.51271 16.5931 -0.69973 
2.84633 17.225 -0.588311 
2.90779 17.1547 -0.600708 
2.97014 17.0854 -0.612929 
3.04598 17.0153 -0.62529 
3.14216 16.9566 -0.635628 
3.21905 16.9114 -0.643601 
3.30316 16.8465 -0.655042 
3.3894 16.7836 -0.666139 
3.47673 16.7274 -0.676052 
3.56238 16.6767 -0.684989 
2.92551 17.2781 -0.578938 
2.98526 17.2059 -0.591684 
3.04385 17.1386 -0.60355 
3.00614 17.3291 -0.569946 
3.08816 17.3779 -0.561342 
3.1002 17.0841 -0.613148 
3.18375 17.0381 -0.62127 
3.27895 16.9903 -0.629698 
3.35969 16.9369 -0.639111 
3.44399 16.8713 -0.650678 
3.52982 16.8122 -0.661095 
3.61422 16.7595 -0.670396 
3.05619 17.25 -0.5839 
3.10143 17.1859 -0.595201 
3.13189 17.1371 -0.603802 
3.13599 17.2974 -0.575532 
3.17109 17.4242 -0.553176 
3.21656 17.3426 -0.567563 
3.21862 17.1374 -0.603747 
3.34203 17.0697 -0.615695 
3.41937 17.0257 -0.623458 
3.50091 16.9579 -0.635403 
3.58499 16.8957 -0.646366 
3.66807 16.8407 -0.656066 
3.18259 17.2192 -0.589329 
3.27361 17.2751 -0.579467 
3.25571 17.4685 -0.54537 
3.29891 17.3857 -0.559977 
3.34346 17.3171 -0.572066 
3.33156 17.2118 -0.590642 
3.40852 17.1494 -0.601641 
3.48351 17.1014 -0.610103 
3.56053 17.0433 -0.620341 
3.64239 16.9779 -0.631885 
3.72406 16.9203 -0.642028 
3.38903 17.2666 -0.580972 
3.34155 17.5105 -0.537973 
3.38243 17.4264 -0.55279 
3.40676 17.3551 -0.565363 
3.42451 17.3097 -0.573365 
3.45166 17.2263 -0.588079 
3.54197 17.1866 -0.595083 
3.62346 17.1271 -0.605571 
3.70238 17.0586 -0.617647 
3.78231 16.9981 -0.628325 
3.47943 17.3029 -0.574577 
3.42853 17.5501 -0.530991 
3.45168 17.4567 -0.547451 
3.46878 17.3774 -0.561436 
3.51659 17.5873 -0.524431 
3.59463 17.2931 -0.576291 
3.69046 17.2083 -0.591261 
3.76583 17.138 -0.603652 
3.84329 17.074 -0.614928 
3.57405 17.4136 -0.55505 
3.5527 17.5011 -0.539627 
3.60567 17.622 -0.518298 
3.63934 17.5349 -0.533664 
3.67207 17.4501 -0.548608 
3.71292 17.3628 -0.564006 
3.77611 17.284 -0.577914 
3.83254 17.2152 -0.590043 
3.90697 17.1477 -0.601943 
3.6957 17.6544 -0.512596 
3.72689 17.5663 -0.528119 
3.76633 17.4847 -0.542516 
3.80007 17.4224 -0.5535 
3.84746 17.3613 -0.564269 
3.903 17.2896 -0.576919 
3.97388 17.219 -0.589365 
3.78655 17.6842 -0.507335 
3.81524 17.5954 -0.522999 
3.83547 17.5141 -0.537324 
3.84871 17.4611 -0.546678 
3.91268 17.443 -0.549868 
3.97721 17.3607 -0.564384 
4.04376 17.2871 -0.577365 
3.87825 17.7116 -0.502509 
3.8952 17.6207 -0.518533 
3.90928 17.5321 -0.534152 
4.01382 17.4825 -0.542912 
4.0515 17.4193 -0.554051 
3.99797 17.5523 -0.530597 
4.11681 17.3514 -0.566021 
3.9707 17.7364 -0.498129 
3.98522 17.6442 -0.514389 
4.07401 17.5085 -0.538316 
4.12651 17.471 -0.544923 
4.08066 17.5704 -0.527408 
4.19346 17.4116 -0.555405 
4.07587 17.6654 -0.510645 
4.06381 17.7587 -0.494198 
4.18694 17.5551 -0.530095 
4.27439 17.4673 -0.545588 
4.176 17.687 -0.506845 
4.15752 17.7784 -0.490721 
4.35865 17.5168 -0.536853 
4.30764 17.6252 -0.517741 
4.27233 17.7124 -0.502359 
4.25175 17.7956 -0.4877 
4.44659 17.5595 -0.529321 
4.4127 17.7011 -0.504363 
4.34229 17.7447 -0.496668 
4.34671 17.8102 -0.485128 
4.53828 17.5944 -0.523166 
4.53711 17.7206 -0.500928 
4.44176 17.8221 -0.483024 
4.53712 17.8314 -0.481381 
4.63307 17.6205 -0.518577 
4.63394 17.7358 -0.498237 
4.6327 17.8381 -0.480202 
4.72967 17.6364 -0.515759 
4.73122 17.7476 -0.496166 
4.72844 17.8421 -0.479488 
4.72842 17.5417 -0.499105 
4.73745 17.4412 -0.481033 
4.64737 17.5234 -0.500394 
4.65739 17.4324 -0.483641 
4.73678 17.3434 -0.463827 
4.65869 17.3506 -0.469129 
4.56733 17.5069 -0.504514 
4.5849 17.4182 -0.487107 
4.59193 17.3503 -0.474475 
4.727 17.242 -0.446322 
4.64539 17.2568 -0.453517 
4.57294 17.2721 -0.462537 
4.48217 17.4738 -0.509016 
4.51978 17.4017 -0.491374 
4.5427 17.3521 -0.47991 
4.50238 17.3088 -0.477205 
4.72679 17.1422 -0.42872 
4.63503 17.1535 -0.436083 
4.55491 17.1645 -0.445473 
4.44756 17.2097 -0.467484 
4.40847 17.4354 -0.513565 
4.45576 17.3668 -0.493952 
4.3816 17.311 -0.496325 
4.72666 17.0423 -0.411115 
4.62631 17.0434 -0.417366 
4.53192 17.0573 -0.429174 
4.44451 17.075 -0.444191 
4.34591 17.1672 -0.477651 
4.29864 17.2547 -0.502766 
4.35979 17.0708 -0.457989 
4.31996 17.3863 -0.521492 
4.24373 17.3335 -0.529102 
4.72659 16.9424 -0.393508 
4.62533 16.9421 -0.399567 
4.52308 16.9453 -0.410492 
4.43108 16.9599 -0.426018 
4.35213 16.9713 -0.441915 
4.26415 17.1285 -0.488184 
4.22583 17.1991 -0.509744 
4.28155 17.0633 -0.472759 
4.17046 17.2759 -0.537568 
4.2725 16.9876 -0.461425 
4.72655 16.8426 -0.375899 
4.62512 16.8415 -0.381858 
4.52202 16.8428 -0.392541 
4.42205 16.8573 -0.409377 
4.32575 16.8672 -0.428777 
4.23907 16.885 -0.451134 
4.23043 17.0564 -0.483453 
4.2024 17.0949 -0.497247 
4.16101 17.1505 -0.518044 
4.10023 17.2142 -0.546763 
4.20747 17.0083 -0.480677 
4.16464 16.9261 -0.477488 
4.72653 16.7427 -0.358289 
4.72652 16.6428 -0.34068 
4.72652 16.5429 -0.32307 
4.72651 16.4431 -0.30546 
4.72651 16.3432 -0.28785 
4.72651 16.2433 -0.27024 
4.72651 16.1434 -0.25263 
4.72651 16.0436 -0.23502 
4.7265 15.9437 -0.21741 
4.7265 15.8438 -0.1998 
4.72802 15.744 -0.182128 
4.73334 15.6441 -0.164321 
4.62515 16.7416 -0.364242 
4.52226 16.7411 -0.374582 
4.41805 16.7437 -0.390006 
4.31149 16.7559 -0.412097 
4.19136 16.7611 -0.441245 
4.10786 16.8453 -0.479433 
4.15447 17.0441 -0.501065 
4.09526 17.087 -0.52584 
4.03257 17.1488 -0.556673 
4.09848 16.9642 -0.503222 
4.03851 16.8961 -0.510157 
4.6252 16.6418 -0.346627 
4.62523 16.5419 -0.329014 
4.62525 16.442 -0.311402 
4.62526 16.3421 -0.293791 
4.62527 16.2423 -0.276181 
4.62527 16.1424 -0.25857 
4.62527 16.0425 -0.24096 
4.62688 15.9427 -0.223222 
4.63272 15.8367 -0.204081 
4.63587 15.7396 -0.186708 
4.63913 15.6432 -0.169471 
4.54547 15.6417 -0.17801 
4.45199 15.6396 -0.189965 
4.35896 15.6369 -0.205317 
4.52285 16.64 -0.356688 
4.41918 16.6407 -0.371661 
4.31226 16.6486 -0.393007 
4.20993 16.6447 -0.415955 
4.10429 16.6994 -0.454773 
4.04266 16.7678 -0.486171 
4.13495 16.6289 -0.433352 
3.9804 16.8257 -0.517685 
4.03215 17.0201 -0.534133 
3.96785 17.0803 -0.567092 
3.97141 16.9505 -0.542907 
3.91268 16.8785 -0.552241 
4.52346 16.5401 -0.339001 
4.52385 16.4403 -0.321347 
4.52407 16.3404 -0.303711 
4.5242 16.2405 -0.286087 
4.52427 16.1407 -0.268469 
4.52608 16.04 -0.250506 
4.53446 15.9312 -0.230318 
4.54006 15.8303 -0.211885 
4.54336 15.7358 -0.194843 
4.45076 15.7327 -0.206564 
4.35836 15.7296 -0.221781 
4.26673 15.6336 -0.224002 
4.26644 15.7262 -0.240396 
4.42059 16.5388 -0.353464 
4.31481 16.5431 -0.373878 
4.20891 16.5486 -0.399265 
4.13087 16.5519 -0.420966 
4.08829 16.617 -0.445105 
4.05526 16.6541 -0.462016 
3.9948 16.7063 -0.491541 
3.92423 16.7534 -0.52573 
4.07173 16.566 -0.441246 
3.85591 16.8045 -0.562096 
3.90593 17.0092 -0.577933 
3.84627 16.9356 -0.589261 
3.78865 16.8598 -0.601066 
4.42172 16.4377 -0.335445 
4.42263 16.3377 -0.317674 
4.42321 16.238 -0.299986 
4.42353 16.1373 -0.282178 
4.42686 16.0352 -0.263649 
4.44302 15.9217 -0.241073 
4.44795 15.8255 -0.223357 
4.35622 15.8216 -0.23841 
4.26491 15.8181 -0.256952 
4.17516 15.6297 -0.246046 
4.17514 15.7224 -0.262385 
4.17413 15.8144 -0.278886 
4.31742 16.4392 -0.355016 
4.21385 16.4512 -0.380835 
4.11176 16.4647 -0.41117 
4.03529 16.4891 -0.439448 
4.0148 16.5951 -0.46503 
3.94118 16.6342 -0.498278 
3.8701 16.6793 -0.534145 
3.80133 16.7288 -0.57228 
3.96379 16.5228 -0.470268 
3.73339 16.7822 -0.613165 
4.31967 16.3367 -0.336483 
4.3213 16.2353 -0.318254 
4.32486 16.1337 -0.299621 
4.33997 16.0169 -0.275997 
4.35214 15.9149 -0.255632 
4.26171 15.9098 -0.273856 
4.16404 15.9007 -0.296842 
4.08467 15.6253 -0.271343 
4.08469 15.7179 -0.287669 
4.07532 15.8076 -0.306401 
4.06156 15.8933 -0.325846 
4.21868 16.3481 -0.361459 
4.10001 16.3623 -0.396622 
3.99854 16.4052 -0.437149 
3.91465 16.4509 -0.476092 
3.88944 16.5607 -0.505387 
3.81788 16.6035 -0.542889 
3.74871 16.6515 -0.582806 
3.68011 16.7031 -0.625606 
3.83961 16.4859 -0.512793 
4.21983 16.2344 -0.341117 
4.23853 16.1085 -0.314357 
4.25262 16.0045 -0.292667 
4.15139 15.9911 -0.316263 
4.04744 15.9743 -0.344696 
3.99487 15.6202 -0.300005 
3.9949 15.713 -0.316352 
3.99476 15.8054 -0.332691 
3.98219 15.8878 -0.351664 
3.97027 15.9625 -0.369116 
4.068 16.2369 -0.384378 
3.94485 16.3194 -0.441388 
3.86333 16.3707 -0.482514 
3.7915 16.4104 -0.520554 
3.76764 16.5261 -0.551831 
3.69823 16.5728 -0.593476 
3.62907 16.6226 -0.638204 
3.71898 16.4473 -0.561094 
4.124 16.0873 -0.341006 
4.02338 16.0574 -0.367293 
3.95231 16.0248 -0.386663 
3.90634 15.6146 -0.331865 
3.90637 15.7074 -0.348217 
3.90642 15.7999 -0.364518 
3.90604 15.8826 -0.379239 
3.90045 15.9444 -0.392337 
3.90096 15.994 -0.400888 
3.9642 16.1581 -0.405805 
3.87719 16.247 -0.455027 
3.81548 16.298 -0.490086 
3.74521 16.3346 -0.52859 
3.67239 16.3673 -0.570368 
3.64915 16.4924 -0.604522 
3.5796 16.5408 -0.651146 
3.60198 16.4108 -0.615665 
3.8928 16.0987 -0.422596 
3.82119 16.0364 -0.441466 
3.81913 15.6084 -0.366889 
3.81916 15.7012 -0.383238 
3.8192 15.7939 -0.399559 
3.81891 15.8862 -0.415964 
3.81937 15.955 -0.427902 
3.81524 16.1726 -0.468058 
3.75346 16.2171 -0.503965 
3.69465 16.252 -0.538704 
3.62809 16.2859 -0.579353 
3.55713 16.3281 -0.626565 
3.53188 16.4577 -0.664297 
3.48618 16.3738 -0.677457 
3.76247 16.1131 -0.481424 
3.72135 16.076 -0.494469 
3.73111 15.959 -0.469109 
3.73081 16.0227 -0.480471 
3.73322 15.6017 -0.405082 
3.73325 15.6945 -0.421432 
3.7333 15.7872 -0.437761 
3.73329 15.8797 -0.454073 
3.70738 16.1468 -0.513803 
3.64623 16.1751 -0.55012 
3.58579 16.203 -0.588088 
3.5142 16.2438 -0.637246 
3.44202 16.2887 -0.690744 
3.67962 16.0903 -0.517815 
3.66323 16.0292 -0.515476 
3.64895 15.8726 -0.495349 
3.65666 15.9551 -0.505837 
3.6488 15.5944 -0.446368 
3.64883 15.6872 -0.462719 
3.64888 15.78 -0.479057 
3.61644 16.1088 -0.554451 
3.55156 16.1313 -0.595116 
3.47348 16.1583 -0.647454 
3.3994 16.2026 -0.704086 
3.59486 16.0364 -0.553625 
3.57903 15.9482 -0.546989 
3.56607 15.7722 -0.523376 
3.57303 15.8606 -0.534959 
3.56599 15.5866 -0.490691 
3.56602 15.6794 -0.507042 
3.52442 16.0478 -0.596498 
3.44025 16.0708 -0.653477 
3.35848 16.1155 -0.717322 
3.50625 15.9456 -0.589514 
3.4939 15.8499 -0.580262 
3.48483 15.6711 -0.554399 
3.48488 15.764 -0.570743 
3.4848 15.5782 -0.538043 
3.39305 15.9365 -0.661519 
3.30778 16.0204 -0.737648 
3.40974 15.8394 -0.633008 
3.40558 15.7551 -0.620968 
3.40553 15.5694 -0.588257 
3.40556 15.6622 -0.60461 
3.35705 15.8187 -0.666004 
3.31441 15.8646 -0.705212 
3.25673 15.9274 -0.760615 
3.34133 15.7531 -0.665756 
3.32822 15.6529 -0.657663 
3.32819 15.56 -0.641313 
3.26526 15.7627 -0.724851 
3.21186 15.8412 -0.781739 
3.26289 15.6511 -0.70704 
3.25296 15.5502 -0.697085 
3.20363 15.7259 -0.768252 
3.16196 15.7649 -0.810709 
3.19288 15.6461 -0.763213 
3.17981 15.5399 -0.755597 
3.11194 15.6649 -0.83788 
3.10879 15.5291 -0.816824 
3.04021 15.5178 -0.880497 
3.02924 15.6038 -0.906615 
2.97407 15.5062 -0.946604 
2.96935 15.564 -0.961855 
2.91058 15.4942 -1.01492 
2.91841 15.5339 -1.01295 
2.84955 15.4817 -1.08566 
2.86872 15.5058 -1.0664 
2.14674 16.5995 -0.087671 
2.14674 16.5988 -0.175341 
2.14674 16.5977 -0.263005 
2.14674 16.5961 -0.350662 
2.14674 16.594 -0.438308 
2.14674 16.5914 -0.525943 
2.14674 16.5884 -0.613563 
2.08588 16.5281 -0.089273 
2.08587 16.5274 -0.178539 
2.08587 16.5261 -0.267798 
2.08587 16.5245 -0.357045 
2.08587 16.5223 -0.446279 
2.08587 16.5196 -0.535496 
2.08587 16.5165 -0.624694 
2.02501 16.4566 -0.090867 
2.02501 16.4559 -0.181726 
2.025 16.4546 -0.272576 
2.025 16.4529 -0.363412 
2.025 16.4506 -0.454234 
2.025 16.4478 -0.545037 
2.025 16.4446 -0.635819 
1.96414 16.3852 -0.092453 
1.96414 16.3844 -0.1849 
1.96414 16.3831 -0.277337 
1.96414 16.3813 -0.369763 
1.96414 16.3789 -0.462173 
1.96414 16.3761 -0.554566 
1.96413 16.3727 -0.646937 
2.4279 12.8686 -2.1686 
2.4279 12.9832 -2.18793 
2.4279 13.0978 -2.20731 
2.4279 12.8846 -2.07097 
2.4279 12.9994 -2.08945 
2.4279 13.1141 -2.10801 
2.4279 12.9 -1.97321 
2.4279 13.0148 -1.99084 
2.4279 13.1297 -2.00859 
2.4279 12.9145 -1.87535 
2.4279 13.0296 -1.89213 
2.4279 13.1446 -1.90906 
2.4279 12.9284 -1.77737 
2.4279 13.0435 -1.7933 
2.4279 13.1587 -1.80942 
2.4279 12.9415 -1.6793 
2.4279 13.0568 -1.69437 
2.4279 13.172 -1.70968 
2.4279 13.1846 -1.60984 
2.4279 13.0692 -1.59535 
2.4279 12.9539 -1.58112 
2.4279 13.1964 -1.50991 
2.4279 13.0809 -1.49623 
2.4279 12.9655 -1.48286 
2.4279 12.9764 -1.38427 
2.4279 13.0919 -1.39743 
2.4279 13.2074 -1.41036 
2.4279 12.9865 -1.28584 
2.4279 13.1021 -1.2981 
2.4279 13.2177 -1.31022 
2.4279 12.9959 -1.18733 
2.4279 13.1116 -1.1987 
2.4279 13.2273 -1.21 
2.4279 13.0045 -1.08876 
2.4279 13.1203 -1.09923 
2.4279 13.236 -1.10971 
2.4279 13.0124 -0.99013 
2.4279 13.1282 -0.999699 
2.4279 13.2441 -1.00936 
2.4279 13.0195 -0.89144 
2.4279 13.1354 -0.900114 
2.4279 13.2513 -0.908958 
2.4279 13.0259 -0.792698 
2.4279 13.1419 -0.80064 
2.4279 13.2578 -0.808818 
2.4279 13.0316 -0.693911 
2.4279 13.1475 -0.70136 
2.4279 13.2636 -0.708532 
2.4279 13.0364 -0.595083 
2.4279 13.1525 -0.60166 
2.4279 13.2685 -0.608011 
2.4279 13.0406 -0.496222 
2.4279 13.1567 -0.501928 
2.4279 13.2728 -0.507457 
2.4279 13.044 -0.397331 
2.4279 13.1601 -0.402169 
2.4279 13.2762 -0.406876 
2.4279 13.0466 -0.298418 
2.4279 13.1628 -0.302387 
2.4279 13.2789 -0.306273 
2.4279 13.0485 -0.199488 
2.4279 13.1647 -0.202589 
2.4279 13.2809 -0.205652 
2.4279 13.0496 -0.100547 
2.4279 13.1658 -0.10278 
2.4279 13.2821 -0.10502 
2.1779 12.622 -2.12698 
2.27323 12.6407 -2.13012 
2.35388 12.6935 -2.13901 
2.40806 12.7723 -2.1523 
2.1779 12.6378 -2.03114 
2.27322 12.6565 -2.03413 
2.35387 12.7093 -2.04263 
2.40806 12.7883 -2.05532 
2.1779 12.6529 -1.93518 
2.2732 12.6715 -1.93803 
2.35386 12.7245 -1.94613 
2.40806 12.8035 -1.95822 
2.1779 12.6672 -1.83911 
2.27319 12.6859 -1.84182 
2.35385 12.7388 -1.84951 
2.40807 12.818 -1.86101 
2.1779 12.6808 -1.74293 
2.27318 12.6995 -1.7455 
2.35384 12.7525 -1.75279 
2.40807 12.8318 -1.76369 
2.1779 12.6936 -1.64666 
2.27317 12.7123 -1.64908 
2.35383 12.7654 -1.65597 
2.40807 12.8448 -1.66627 
2.1779 12.7058 -1.55029 
2.27315 12.7245 -1.55257 
2.35382 12.7776 -1.55905 
2.40808 12.8571 -1.56875 
2.1779 12.7172 -1.45383 
2.27314 12.7359 -1.45597 
2.35381 12.7891 -1.46204 
2.40808 12.8686 -1.47114 
2.1779 12.7278 -1.35728 
2.27313 12.7466 -1.35928 
2.3538 12.7998 -1.36495 
2.40808 12.8794 -1.37345 
2.1779 12.7378 -1.26066 
2.27312 12.7565 -1.26252 
2.35379 12.8098 -1.26779 
2.40808 12.8895 -1.27568 
2.1779 12.747 -1.16397 
2.27311 12.7657 -1.16568 
2.35378 12.819 -1.17054 
2.40809 12.8988 -1.17783 
2.1779 12.7554 -1.0672 
2.27309 12.7742 -1.06878 
2.35377 12.8275 -1.07323 
2.40809 12.9074 -1.07992 
2.1779 12.7632 -0.970382 
2.27308 12.7819 -0.971809 
2.35376 12.8353 -0.975864 
2.40809 12.9152 -0.981941 
2.1779 12.7702 -0.873503 
2.27307 12.7889 -0.874787 
2.35375 12.8423 -0.878437 
2.4081 12.9223 -0.883909 
2.1779 12.7764 -0.776574 
2.27306 12.7952 -0.777715 
2.35373 12.8486 -0.780959 
2.4081 12.9286 -0.785825 
2.1779 12.7819 -0.6796 
2.27305 12.8007 -0.680599 
2.35372 12.8541 -0.683437 
2.4081 12.9342 -0.687696 
2.1779 12.7867 -0.582587 
2.27303 12.8055 -0.583443 
2.35371 12.8589 -0.585876 
2.4081 12.9391 -0.589528 
2.1779 12.7908 -0.48554 
2.27302 12.8096 -0.486254 
2.3537 12.863 -0.488281 
2.40811 12.9432 -0.491325 
2.1779 12.7941 -0.388466 
2.27301 12.8129 -0.389036 
2.35369 12.8663 -0.390658 
2.40811 12.9466 -0.393095 
2.1779 12.7967 -0.291369 
2.273 12.8155 -0.291797 
2.35367 12.8689 -0.293013 
2.40811 12.9492 -0.294841 
2.1779 12.7985 -0.194255 
2.27299 12.8173 -0.19454 
2.35366 12.8707 -0.195351 
2.40812 12.951 -0.19657 
2.1779 12.7996 -0.09713 
2.27297 12.8184 -0.097273 
2.35365 12.8718 -0.097678 
2.40812 12.9522 -0.098288 
1.5785 12.622 -2.12698 
1.6784 12.622 -2.12698 
1.7783 12.622 -2.12698 
1.8782 12.622 -2.12698 
1.9781 12.622 -2.12698 
2.078 12.622 -2.12698 
1.5785 12.6378 -2.03114 
1.6784 12.6378 -2.03114 
1.7783 12.6378 -2.03114 
1.8782 12.6378 -2.03114 
1.9781 12.6378 -2.03114 
2.078 12.6378 -2.03114 
1.5785 12.6529 -1.93518 
1.6784 12.6529 -1.93518 
1.7783 12.6529 -1.93518 
1.8782 12.6529 -1.93518 
1.9781 12.6529 -1.93518 
2.078 12.6529 -1.93518 
1.5785 12.6672 -1.83911 
1.6784 12.6672 -1.83911 
1.7783 12.6672 -1.83911 
1.8782 12.6672 -1.83911 
1.9781 12.6672 -1.83911 
2.078 12.6672 -1.83911 
1.5785 12.6808 -1.74293 
1.6784 12.6808 -1.74293 
1.7783 12.6808 -1.74293 
1.8782 12.6808 -1.74293 
1.9781 12.6808 -1.74293 
2.078 12.6808 -1.74293 
1.5785 12.6936 -1.64666 
1.6784 12.6936 -1.64666 
1.7783 12.6936 -1.64666 
1.8782 12.6936 -1.64666 
1.9781 12.6936 -1.64666 
2.078 12.6936 -1.64666 
1.5785 12.7058 -1.55029 
1.6784 12.7058 -1.55029 
1.7783 12.7058 -1.55029 
1.8782 12.7058 -1.55029 
1.9781 12.7058 -1.55029 
2.078 12.7058 -1.55029 
1.5785 12.7172 -1.45383 
1.6784 12.7172 -1.45383 
1.7783 12.7172 -1.45383 
1.8782 12.7172 -1.45383 
1.9781 12.7172 -1.45383 
2.078 12.7172 -1.45383 
1.5785 12.7278 -1.35728 
1.6784 12.7278 -1.35728 
1.7783 12.7278 -1.35728 
1.8782 12.7278 -1.35728 
1.9781 12.7278 -1.35728 
2.078 12.7278 -1.35728 
1.5785 12.7378 -1.26066 
1.6784 12.7378 -1.26066 
1.7783 12.7378 -1.26066 
1.8782 12.7378 -1.26066 
1.9781 12.7378 -1.26066 
2.078 12.7378 -1.26066 
1.5785 12.747 -1.16397 
1.6784 12.747 -1.16397 
1.7783 12.747 -1.16397 
1.8782 12.747 -1.16397 
1.9781 12.747 -1.16397 
2.078 12.747 -1.16397 
1.5785 12.7554 -1.0672 
1.6784 12.7554 -1.0672 
1.7783 12.7554 -1.0672 
1.8782 12.7554 -1.0672 
1.9781 12.7554 -1.0672 
2.078 12.7554 -1.0672 
1.5785 12.7632 -0.970382 
1.6784 12.7632 -0.970382 
1.7783 12.7632 -0.970382 
1.8782 12.7632 -0.970382 
1.9781 12.7632 -0.970382 
2.078 12.7632 -0.970382 
1.5785 12.7702 -0.873503 
1.6784 12.7702 -0.873503 
1.7783 12.7702 -0.873503 
1.8782 12.7702 -0.873503 
1.9781 12.7702 -0.873503 
2.078 12.7702 -0.873503 
1.5785 12.7764 -0.776574 
1.6784 12.7764 -0.776573 
1.7783 12.7764 -0.776574 
1.8782 12.7764 -0.776573 
1.9781 12.7764 -0.776574 
2.078 12.7764 -0.776574 
1.5785 12.7819 -0.6796 
1.6784 12.7819 -0.6796 
1.7783 12.7819 -0.6796 
1.8782 12.7819 -0.6796 
1.9781 12.7819 -0.6796 
2.078 12.7819 -0.6796 
1.5785 12.7867 -0.582587 
1.6784 12.7867 -0.582587 
1.7783 12.7867 -0.582587 
1.8782 12.7867 -0.582587 
1.9781 12.7867 -0.582587 
2.078 12.7867 -0.582587 
1.5785 12.7908 -0.48554 
1.6784 12.7908 -0.48554 
1.7783 12.7908 -0.48554 
1.8782 12.7908 -0.48554 
1.9781 12.7908 -0.48554 
2.078 12.7908 -0.48554 
1.5785 12.7941 -0.388466 
1.6784 12.7941 -0.388466 
1.7783 12.7941 -0.388466 
1.8782 12.7941 -0.388466 
1.9781 12.7941 -0.388466 
2.078 12.7941 -0.388466 
1.5785 12.7967 -0.291369 
1.6784 12.7967 -0.291369 
1.7783 12.7967 -0.291369 
1.8782 12.7967 -0.291369 
1.9781 12.7967 -0.291369 
2.078 12.7967 -0.291369 
1.5785 12.7985 -0.194255 
1.6784 12.7985 -0.194255 
1.7783 12.7985 -0.194255 
1.8782 12.7985 -0.194255 
1.9781 12.7985 -0.194255 
2.078 12.7985 -0.194255 
1.5785 12.7996 -0.09713 
1.6784 12.7996 -0.09713 
1.7783 12.7996 -0.09713 
1.8782 12.7996 -0.09713 
1.9781 12.7996 -0.09713 
2.078 12.7996 -0.09713 
1.3285 12.8686 -2.16852 
1.34744 12.7744 -2.15266 
1.40139 12.6946 -2.1392 
1.48189 12.6412 -2.1302 
1.3285 12.8847 -2.07081 
1.34744 12.7904 -2.05566 
1.40138 12.7105 -2.04281 
1.48189 12.657 -2.03422 
1.3285 12.9 -1.97298 
1.34745 12.8056 -1.95854 
1.40138 12.7256 -1.9463 
1.48188 12.6721 -1.93812 
1.3285 12.9146 -1.87503 
1.34745 12.8201 -1.86131 
1.40138 12.74 -1.84968 
1.48188 12.6864 -1.8419 
1.3285 12.9284 -1.77698 
1.34745 12.8339 -1.76397 
1.40137 12.7537 -1.75295 
1.48187 12.7 -1.74558 
1.3285 12.9416 -1.67882 
1.34746 12.8469 -1.66653 
1.40137 12.7666 -1.65612 
1.48187 12.7129 -1.64916 
1.3285 12.9539 -1.58056 
1.34746 12.8591 -1.569 
1.40137 12.7788 -1.5592 
1.48186 12.7251 -1.55264 
1.3285 12.9656 -1.48222 
1.34746 12.8707 -1.47137 
1.40137 12.7903 -1.46218 
1.48186 12.7365 -1.45603 
1.3285 12.9764 -1.38379 
1.34746 12.8814 -1.37366 
1.40136 12.801 -1.36509 
1.48185 12.7472 -1.35934 
1.3285 12.9866 -1.28528 
1.34747 12.8915 -1.27588 
1.40136 12.811 -1.26791 
1.48185 12.7571 -1.26258 
1.3285 12.9959 -1.1867 
1.34747 12.9008 -1.17801 
1.40136 12.8202 -1.17066 
1.48184 12.7663 -1.16573 
1.3285 13.0046 -1.08805 
1.34747 12.9094 -1.08008 
1.40136 12.8288 -1.07334 
1.48184 12.7748 -1.06883 
1.3285 13.0124 -0.989335 
1.34747 12.9172 -0.982092 
1.40135 12.8365 -0.975961 
1.48184 12.7825 -0.971856 
1.3285 13.0196 -0.890563 
1.34748 12.9243 -0.884043 
1.40135 12.8436 -0.878525 
1.48183 12.7896 -0.87483 
1.3285 13.026 -0.791741 
1.34748 12.9306 -0.785944 
1.40135 12.8499 -0.781039 
1.48183 12.7958 -0.777753 
1.3285 13.0316 -0.692873 
1.34748 12.9362 -0.6878 
1.40135 12.8554 -0.683508 
1.48182 12.8014 -0.680632 
1.3285 13.0365 -0.593965 
1.34748 12.941 -0.589616 
1.40135 12.8603 -0.585937 
1.48182 12.8062 -0.583472 
1.3285 13.0406 -0.495023 
1.34749 12.9451 -0.491398 
1.40134 12.8643 -0.488332 
1.48181 12.8102 -0.486278 
1.3285 13.044 -0.396053 
1.34749 12.9485 -0.393152 
1.40134 12.8677 -0.3907 
1.48181 12.8135 -0.389056 
1.3285 13.0466 -0.29706 
1.34749 12.9511 -0.294884 
1.40134 12.8703 -0.293045 
1.4818 12.8161 -0.291812 
1.3285 13.0485 -0.198049 
1.3475 12.9529 -0.196599 
